# 3D point list with one line of data per point:
#   POINT3D_ID, X, Y, Z, R, G, B, ERROR, TRACK[] as (IMAGE_ID, POINT2D_IDX)
# Number of points: 370, mean track length: 5.3463535786859335
1528 2.0851534912382212 1.2984928430887988 1.9930827488748566 43 31 33 1.5193312745295195 24 1754 22 1080 73 1375 72 809
1529 3.4263269844361619 2.2540769214021652 3.5937553958952675 34 64 77 3.6077916316419767 31 294 22 116
3886 0.20245700862465982 1.7396778894172269 4.5797109227496238 166 147 130 1.1675605807839502 1 542 2 757 50 814 52 835 49 598 48 870 42 527 47 945 39 449 53 924
1530 1.6981951548234224 0.96138481756915872 1.0950663303711525 145 133 121 0.86368512824623767 23 451 22 158 24 801 21 144
1531 2.9500963999899468 1.8927401820949428 7.2692986302899385 0 0 0 1.357342162821805 23 180 25 138
1534 2.6831941011813369 4.2768547469175324 1.2985490388558829 214 201 185 0.27066045754872847 24 1663 22 972
1537 2.8172871648354403 2.9674734411098069 2.9133551288375523 62 78 77 0.97922289288883202 29 1072 30 1082 31 1215 25 1193 24 1141 22 550 21 442 81 596 84 1241 80 734 20 452 19 421 77 486 18 403 16 239
1538 2.8018750562232904 0.5269343910780796 2.3708681175655464 95 73 76 0.22331586391763758 22 172 21 8
1539 2.0074998788294929 1.2250905520876025 2.0224651780508376 70 51 44 1.1766498712034894 27 90 21 43 78 321 77 344 74 391 73 153
3896 -0.5217660423360666 1.7043996126176146 4.8593537694788012 210 192 178 0.87800036582290897 56 371 58 346 2 959
1540 3.1436380746856094 1.4062776507609458 2.1874182901351236 91 106 118 0.43166744197134149 23 329 21 45 24 539
3897 2.2081501988589842 0.30717907027813962 3.3345403199226786 225 253 255 0.77816907680538949 1 709 2 986
1541 3.4457399334511578 2.0359389840656004 2.8210519555244202 87 82 78 0.14545854205720596 24 137 25 429 21 56
1542 3.4250261162001934 2.0689190840086513 2.7312757516932078 160 159 157 0.19140422301044416 23 139 21 59
1543 3.3918422427528205 2.1517439370652722 2.7878025613123718 165 170 174 0.63590452053183955 27 420 21 73 81 211 84 551
1547 2.7721774645699799 2.415764659297523 2.5254982966637627 151 147 152 2.2585891207841131 25 169 30 232 21 107 77 127 27 233
3904 2.8350025092091027 0.0037987419694937774 3.2488060806166099 155 149 159 0.60302864227506325 1 216 2 42
1548 2.807780171271244 2.4528366524991534 2.5524577452561585 151 150 156 0.59246299139239189 23 379 21 111 82 269
1550 2.8014285475406684 2.4982431874751638 2.5824223923136622 132 121 119 0.22812902455752038 23 209 29 522 21 115
1551 3.279614310087577 2.5364666377465026 2.9739206647881944 118 133 139 0.29925877733891743 23 218 24 213 21 120
3908 3.0317396029251737 0.18129757331270288 2.6360901330446902 245 209 203 1.8508519771531693 50 9 49 8 51 8
1552 2.4022433489498081 0.10258848362241377 2.0289296632745937 134 135 126 0.57739987887150879 22 3 21 132 19 0
1554 2.7867299810563164 0.33428348211737502 2.4468019708540316 247 247 247 0.69348823462658871 23 452 24 800 21 142
1555 3.4527000127096312 0.74321445241137774 2.232174156378274 144 173 177 0.83419533690209757 22 185 21 156 20 199
3912 2.2036207450183833 0.93094839102727822 2.0084519575844491 179 148 146 1.1227192163768429 51 77 50 65 42 22
1556 2.236772463427108 0.93265846877293612 1.9088321281619975 116 75 68 0.49341864514920508 23 288 21 166 22 338
1557 1.8191464760731855 1.1021216979499142 1.994546272441778 98 77 68 1.3370513710273031 23 303 21 174 22 60
1560 2.8020127391135397 2.2600665275841383 2.4180926839533892 33 31 30 0.87897107684881415 29 241 21 203 82 108 19 88 76 181
1562 3.1376551477410635 2.3494328853891253 2.6003744995622924 143 172 180 0.34819197451974016 22 275 21 216 81 226
3919 2.7613378550701184 0.3293897969154187 3.3721238637580528 100 94 106 2.109776737439959 51 139 50 133 49 129 48 136
1563 2.7857407239707643 2.459054599001095 2.5561875630352153 35 17 19 0.93911482267116175 22 283 21 224 84 205 81 128 82 127 80 249 78 234 76 318
1564 2.9331992811499594 2.5943718363548065 2.7337975823726151 132 126 123 0.36771066097583671 22 297 21 232 19 313
1565 2.7509653097343429 2.69927260458544 2.8388539309716165 52 40 42 1.0994247897740701 23 850 21 240 20 582
1566 2.3602336880922508 0.47572114327819609 2.3968081484603427 55 49 53 1.4948097487218031 22 326 29 578 21 261
1568 1.8771499096599864 1.1079476212716293 2.051247830349801 89 64 57 1.0105809864024426 22 352 21 286 23 493
1569 2.1288407554678495 1.2079199692054077 2.0010638363107249 14 18 19 1.3227255875094472 23 495 21 290 19 473 17 350 70 456 13 342 11 305
1570 3.2540800809204167 1.2708724350498937 2.1873504466328986 62 70 81 1.1382041416870927 25 897 21 291 81 544 79 292 77 453
1571 3.2525356016065596 1.2741072710665113 2.1756192113433204 62 70 81 0.94817944364034579 25 898 21 292 81 543
3928 2.3700252432715057 1.0143050103450777 1.7279086806257091 144 129 126 1.5248486015697154 51 405 50 298 52 227 49 358 48 274 43 156 44 98 45 15 42 195 40 155 39 9 37 185 57 442
1574 2.7663831877860776 2.6452822353728958 2.7318746151377153 66 47 41 0.56574760397419155 24 901 26 433 21 339
1578 3.1792286544340587 1.3071355298240637 2.1463391689141345 64 66 81 0.80834133944975639 25 900 21 389 20 503
3935 2.8339967226556069 0.205574630541555 3.3368024049089371 113 97 95 2.0576004351397259 51 120 50 346 49 262
1579 3.1373601081213192 1.2994719616882291 2.201246990075457 98 132 144 0.38881502490811903 24 1060 21 392 23 509
1581 3.0707694446665252 1.4255074550996847 2.093606251469974 93 114 128 0.14099464946095919 29 1020 21 404 82 609
1582 3.4354902185556866 2.1461494710057849 2.8491499120692723 71 76 81 0.73601567753296526 23 824 24 1307 21 421 20 438 19 71
1583 3.2661806001771989 2.3662938033856893 2.7588451249296524 154 179 192 0.0019281127674900781 23 836 21 430
1588 2.106265720532182 1.1425481142599421 1.9368099669173029 63 59 56 1.7338733389481433 22 634 23 792 21 504 20 566
1589 3.015492983676002 1.3966138437108542 2.0362290802874061 140 188 195 0.70812670851408832 22 644 23 807 21 516 82 708 20 508 78 564 76 595 75 1032 74 730 73 1202 72 559 71 762 70 333
1590 1.6694457874849025 2.69865513593462 3.1864913836647935 179 147 129 1.188015946343624 23 695 25 1179 21 540 75 1156
1591 1.7320213733058789 2.7632907455921223 3.1749752322218598 185 151 130 1.1236941740292221 22 545 21 541 74 845 73 1137
1592 0.87798404334748581 3.3696557933764559 2.4100412933399955 172 146 129 1.9619221090572745 22 719 21 567 20 537 19 565 17 480 16 428 15 490
1593 2.1409414848646255 3.6213240849463011 2.0452178272762831 173 154 139 1.174621043353185 25 1371 21 571 75 1169 73 1288 74 929 72 719 52 668 53 793 47 799
1595 2.373380283286552 0.62458980314685397 2.5405855986546384 165 151 151 0.67863209607838626 22 625 23 957 24 1617 21 605 20 493
2844 2.0037513505660689 0.97094493359339484 1.9347564443891101 83 67 70 1.7843355538878869 15 217 14 118 13 201 10 95 8 90 6 107 9 107 5 111 4 120
1596 3.2121232520214167 1.1705335630315552 2.3985151087687848 73 75 88 1.6881909630541836 22 811 23 964 21 615
488 3.1634011099352817 2.4789913487749344 2.8313925533604829 125 148 166 0.35083693517971909 25 1593 26 1384 27 1321 29 1484 30 1471 23 1189
2845 1.6787982902268572 0.60360630887893696 2.8542913973047415 99 79 70 1.5616871277823776 15 51 14 124
1597 3.3815924585636523 1.921286114102331 2.625623574795211 157 146 140 1.4778392640301128 24 1489 21 620 80 829
2846 2.5689910273538294 2.6890781828730188 2.7128133150236011 115 104 100 0.33391183129918872 15 179 14 145 12 56
1598 3.7365271433705249 1.8020124057692313 3.4392261072639223 152 172 173 1.4238116502966418 22 820 23 1060 24 1624 21 621
5577 1.2222400117615917 2.7690792747134125 3.1696755464011739 180 146 124 1.7098659967530594 49 541 48 758 46 778 44 421 57 531 28 764 51 645 47 827
490 3.4182426350042925 2.732955810304825 3.185200340012226 144 166 163 1.7287609174688974 27 1325 29 1470 31 1954 84 1560 82 925
2847 0.46330143294399312 2.1965915287844613 3.8688804117847537 159 141 121 1.2354575361305977 16 363 14 342 13 288
1599 1.1131113857547648 2.3837564825195781 3.4366083458400829 200 178 161 1.4847333607848716 25 1318 21 628
1600 3.3946463677784036 2.9583983852862401 2.6364198499069058 167 179 182 1.0404598395125004 22 940 21 634 23 1128
1602 1.6490566323094782 0.97731632353983144 2.3799886520494473 83 54 44 1.8047269840108791 22 810 24 1621 21 702 23 1055
494 3.7042291921266886 0.58788657791630272 3.5675802185847316 79 78 85 1.4537032669688108 28 1372 26 1394 27 1344 29 1494 30 1477
1603 3.5142359029739327 2.4903584501172031 3.5476442848126197 156 176 183 1.3406408659002456 22 996 21 707 23 1123
2852 2.3521449852208862 0.40263031741566258 2.7883740555952405 118 104 107 1.358408802225489 15 620 12 400 14 533 11 450
1604 1.942184958529388 3.6793192917793802 1.9826298228414307 173 154 139 1.0353313925837613 23 1081 26 1272 21 730
1605 3.1559380340973404 0.98710186266477051 2.1959051498898283 101 86 89 1.2300364819516585 22 988 23 1109 24 1685 21 751 19 628
2857 1.7972710822670224 0.62178069354308252 2.1186649770069064 134 129 133 0.53757094584333043 16 24 14 20
1609 3.1395791109380471 1.2557676266920816 2.296283882995199 163 190 205 0.48537827425471158 22 1039 23 1115 24 1719 21 776
501 2.6104274818996998 0.10235501809614195 2.2269188230397008 205 210 203 2.1453314619951436 25 1617 24 1796 23 1215 22 1120 21 822 20 703 18 702 19 694
2858 2.5665812300050566 0.31377187048775157 2.1020823682810748 139 140 131 1.7098258077931996 82 306 18 260 75 440 76 14 17 0 74 21 29 4 78 24 73 14 72 11 71 8 16 181 15 114 14 86 28 313 27 8 29 358 30 554 31 7 23 4 79 177 19 151 78 162 77 304 17 1
1610 3.1651092144262725 1.6895673754725673 2.8291524395510685 80 67 76 0.2528349511983734 22 1042 21 779
502 1.2806260983632816 2.041878453002496 3.148434535675452 221 203 191 1.7968525666383157 25 1632 26 1411 22 1129 21 842 20 713
2859 2.6583794523538478 2.255004071511943 2.3727951550298116 162 147 146 0.73760514935629706 72 492 71 505 70 347 69 209 28 921 26 978 27 946 29 1038 30 1052 31 1440 24 1313 25 1164 23 827 22 656 21 526 84 1030 81 573 82 628 80 714 20 516 79 311 19 485 78 345 77 471 18 451 76 505 75 902 17 361 73 1128 16 355 15 308 14 257 69 211 13 271 12 199
1611 3.3432276927057627 3.100260158814605 3.1872294683501137 218 206 197 0.35898798699429052 22 1091 21 787
3968 2.4357294666344385 0.80368895105835125 2.0695758799462065 158 141 151 1.6822190803234238 51 783 50 654 52 614 49 483
503 2.2274156082546663 0.35238228797526072 2.4695447624096101 139 139 133 1.5332625688311137 28 1236 29 1363 30 1272
2860 2.9105570206796205 2.2283722363139469 2.4229907651673837 140 142 137 0.92449736553567519 14 133 13 62 12 52
1612 1.4502024237504678 3.7098768473152264 1.8978984956278049 182 160 146 0.96386896795317833 25 1559 21 788 42 581
1614 2.3361719244515555 0.63323458191960957 2.5690831858643639 148 149 151 1.6801183711606424 22 1076 23 1167 21 794 20 672
506 2.7244164498712298 0.38051267460393828 2.4922956533114604 154 152 153 0.64347856982068041 28 318 27 13 29 367 31 766
2863 2.7240447803220058 3.0290310907430369 2.8314101281870552 71 73 62 0.99457598407889025 16 173 13 156 10 172 5 135 4 142
1615 2.3361719244515555 0.63323458191960957 2.5690831858643639 148 149 151 1.6801183711606424 22 1077 23 1168 21 795 20 673
1619 2.1071828785714408 1.0415666727475816 1.8129714644234127 54 40 40 0.89133696103564586 22 1104 23 1193 21 815 20 687
1620 1.4203757714477574 0.68393512653197885 2.9652491403736616 211 198 181 1.9129589886181693 22 1114 21 836 20 711
513 2.7277870517172094 0.51583621456671769 2.5619877050337414 122 112 121 1.8607108454812735 25 34 28 33 27 35
1622 2.8829450873654636 2.5190028681914307 2.6254234790730422 24 22 21 1.2192781387305984 25 742 26 823 27 777 31 907 24 1117 23 554 22 529 23 844 21 227 21 538 25 470 28 274 26 192 27 248 29 314 24 209 81 350 82 546 80 428 20 286 20 520 79 156 19 311 78 91
3979 3.9051597648250143 1.554604154214029 4.8629328415794557 221 212 208 1.2252810563945895 51 454 50 708 52 470 49 526 48 1147 43 486 46 581 44 218 45 512 42 353 41 567 40 552 53 587 38 648 37 573 39 418 54 656 36 866 57 493
1624 2.8822433610095639 2.5187056663252041 2.6236580839523809 24 21 22 1.1896541205542026 28 275 26 193 29 313 24 208 21 226 25 743 26 824 27 778 31 906 24 1116 23 555 22 530 23 843 21 537 25 471 81 351 82 547 80 429 20 285 20 519 19 310 78 92 77 383 17 303 74 149 73 754 15 310 14 136
516 2.3851597817272947 0.61915498545829717 2.5409966899855543 161 143 143 0.67742181416686631 28 47 27 44 23 43 25 366
2873 1.9943514334434358 1.01019536936652 1.9364969949284845 84 72 72 1.9587516712525304 14 328 13 339 12 246 9 202 10 212
1625 2.9805369224035698 1.4277933155852116 2.03544468293238 47 55 70 0.9501675395875322 26 97 29 129 30 639 31 559 24 118 31 171 23 328 22 233 21 186 28 730 27 741 30 832 84 1002 82 368 20 251 79 21 78 208 77 235 18 57 74 123
518 3.7414229244961126 0.42927420636617708 3.7267016171082465 155 154 159 0.39235280494481334 28 68 27 67 29 69
2875 2.4083339076019592 0.19593277621087096 2.1207556302086248 166 154 136 1.0419868862784269 16 387 13 381 68 360 67 350 66 427 62 255 59 267 58 461 56 447
1627 3.0588434032435168 1.2082188137056502 2.3744952827697343 32 37 45 1.4595590355085737 28 388 27 588 21 176
3984 1.0753924190575128 2.6070492635887845 3.4114568127042397 180 148 123 0.64535946500533781 27 776 50 751 46 787 47 839 53 650 52 519
1628 3.3667503572932547 2.2803858115147269 2.8599001495661418 139 164 177 0.4453031120162918 23 179 21 98
3985 0.86854177273632416 2.6808636148802316 3.2834604597357062 178 150 127 1.1079475316987899 51 660 50 752 52 732 49 556 46 946 47 1043
1629 1.9307711882837824 0.92513951458942201 1.7101561270120329 214 251 253 2.6438792903148483 22 623 23 955 24 1472 21 496
3986 1.6135594958761019 2.0202207051223189 4.2557065632966475 188 159 141 0.87573876512677595 51 657 50 753 46 804 57 527 53 641
1630 3.0075337535165501 -0.098537564383591555 3.2820958219743011 134 148 149 0.35326917925481038 25 1569 21 744
3987 0.57582821914516913 2.8560381526355445 3.056068714711917 196 171 149 0.32173232979770011 51 670 50 758 52 744 48 774
525 3.3001182062402057 1.241516368562994 2.2261440707449647 38 64 77 0.43591048585272496 28 106 27 101 29 113 30 405
2882 2.4063099263263079 0.46016110095426743 2.2939017198523683 87 70 62 1.2486098204156895 14 500 13 545 12 397 11 464
1634 3.6874682687041154 0.61326376043160424 3.5378576469134853 38 32 34 0.20697824389174047 29 86 84 59 82 33
526 3.0345485497262517 1.3487151484463087 2.0276430690970386 60 65 85 0.79277996201009771 28 110 27 111 29 118 30 104
2883 1.7902644664765728 0.58672597226933265 3.1600103763491365 90 56 54 1.9805311496540574 13 560 11 505
1635 3.7473112267476472 0.59787641548370174 3.5944985146136115 127 138 144 0.73195542087537391 24 73 28 80 84 60 23 304
3992 0.47583738256100894 2.208263592328795 3.9366855714189937 196 175 156 1.3535123570311749 51 864 50 777 52 766 49 687 46 979 47 894 43 617 44 453 45 614 42 506 41 708 40 581 54 1128
527 3.4492064793899311 1.89147676204709 2.6540627340045839 163 157 152 0.49746099482884726 26 374 28 135 27 135 29 155 30 141 24 547 22 238
2884 2.8428892878703316 3.0054069144950684 2.8490830292576814 89 91 80 2.0957259237656003 14 567 69 750 13 564 12 444 11 507 68 445 67 414 69 759 66 523 64 449 65 377 10 471 8 342 6 399 9 402 7 309 5 387
1636 3.8472373489164857 0.60005928572567024 3.854929276728424 48 46 51 0.50882329169864704 22 62 84 65 24 87
3993 0.41989113077513485 2.2322156994994282 3.9249332132266699 198 176 155 0.9851104544760062 51 711 50 781 47 690 46 643 42 384 41 460
529 3.4081009369218953 1.9514069526123123 3.2823893157891533 143 144 138 2.2437719937498031 27 148 31 213
1638 3.551122404189698 1.9446618876089707 2.8637571914944151 145 150 144 0.30434920431422413 27 140 84 135
3995 0.40332272640690103 1.8037222822006662 4.5159956530718954 204 183 164 0.53021751295770903 51 733 50 808 52 818
532 3.5209151563760912 2.0952867848158094 2.9676914747871153 187 193 194 0.73559361212882901 28 178 27 175 29 212 30 192
1641 3.5322953469367193 2.2316781655739573 3.0711887011561601 2 38 48 0.34482541583832754 28 230 84 189
533 2.8720322362909045 2.176717177583948 2.4213732273941471 14 20 34 0.35658364576983859 25 139 27 178 22 90
2890 2.7187975942174143 0.61088566289366131 2.4124543078318434 110 83 79 1.2228278338818164 13 113 12 80 11 16 10 68 8 80 6 153
1642 3.0975339192914428 2.2779023015993807 2.5560695996607987 3 17 34 0.47449370636140614 27 205 84 191 81 106
3999 2.2839483697857892 0.90959308079455559 1.9358601725830782 231 216 219 0.15973420326693505 51 568 50 867 49 621
534 3.5451487312502437 2.1061516457088389 2.999342093841622 62 77 90 0.4028288230242259 28 427 27 180 29 494 30 474 31 610
2891 2.7144745086184203 0.61497753468900973 2.4317289110750622 248 239 229 0.98965741006274466 13 188 12 134 10 135 9 90 8 81
1643 2.8506819446374427 2.5753595682506916 2.6433601142852909 106 104 105 0.28484717751996536 29 320 84 229
4000 2.3825851388032557 1.0414612609982776 1.9973605737615314 142 115 122 2.1505484059606381 51 573 50 868 49 623
1644 2.568546926010276 0.3363095544959972 2.1015573383249366 116 113 106 0.82933214464614236 21 2 84 430 81 160 82 174 79 10 76 23 75 10 71 10
4001 2.254021644421198 0.95233135700833271 2.0141381159872465 84 54 54 0.37326590815723099 51 576 50 869 52 629
536 1.6189833382488092 2.272848753298367 2.994445337431026 153 127 112 1.5886502986513298 27 187 30 459
2893 2.4447052497152022 0.46230958657859766 2.6205591660316423 118 89 91 1.5647390252824396 14 100 12 179
1645 2.0138089461308213 0.91365477381524163 1.915512250779978 252 242 236 1.0338385344830445 29 48 81 279 82 188
537 2.6293935734638278 2.250063535766567 2.4835365769382989 165 150 147 1.8644372103717497 26 155 27 189 29 231 24 170 23 171
2894 1.8893978044787296 0.16333748132382905 3.0282518849398938 77 88 100 2.0513794159275012 12 185 11 296 4 309
1646 3.1778595085785755 2.8162403290226008 3.1226741387367607 57 73 72 0.23975060650803223 27 471 31 665 84 597
1647 3.6736592650610103 1.1633234603018221 3.9803181273881822 76 47 41 1.6949855838957641 28 120 84 789
4004 2.9958661536037425 0.21625393329706205 3.3331322210234036 211 210 210 2.0134917421548058 51 590 50 878 49 793
539 2.6801692831212729 2.2560753831418832 2.375962073745705 175 159 159 0.15396185042878971 28 199 27 192 22 102
2896 2.3609743125919476 3.3042025443355985 2.5133422930531344 173 147 121 1.8223576119032672 69 624 12 261 71 965 64 347
1648 2.9909389588137301 1.4094465009599453 2.0327526517419781 149 157 182 0.32223072385235713 29 653 84 804 82 367
4005 1.7869043266593541 0.72272933151885099 2.2369553888220977 128 95 90 1.0741197565914034 51 795 50 884 52 891
540 3.4980159725279827 2.1961553523266 2.9628930814280787 184 200 209 0.26182487811182725 28 213 27 198 29 252 30 487 31 288
1649 1.9435916211333628 2.8920918007912273 3.0111113980776456 181 154 143 1.0037987034972222 25 757 84 836 80 725 77 485
4006 1.7077561527366374 0.69660791655223564 2.2160858330838415 198 160 155 0.48886643548534237 51 796 50 885 52 893 49 630
1650 2.6390335117898553 0.29841873377057726 2.1388025156865247 138 145 137 1.0745474733610332 29 768 84 923 81 507 78 284 26 274 30 311
4007 3.7994532001897134 0.45464322182745892 3.8175235256470281 124 113 121 1.309051989923252 51 599 50 888 52 639 49 638 46 1087 47 1205 43 681 45 657 40 653 39 592 53 768
1652 3.836532306535581 1.299643526553824 4.1423314697593474 36 28 25 0.87351662454174406 27 600 84 1000 82 507
1653 3.0053966431420154 1.4885171595317437 2.0575833489348367 141 144 161 0.27205320617581175 24 1075 84 1007
1656 3.8373916231039948 1.5683430942595304 4.8101954426567071 123 131 133 1.2156450134573771 28 1255 29 1302 84 1195
1657 3.0883538240723958 2.3434416914167526 2.6056823278316292 130 153 167 0.70634617618557183 21 428 28 931 84 1221 81 581 82 637
4014 0.53489659547097634 2.4932804233066661 3.5283748205378576 224 199 179 1.4852910610378303 24 1115 51 846 50 922 46 961 44 442 48 995
1658 1.9941998498581632 2.8954695626829565 3.0149064749779533 37 30 23 1.7087619950124247 26 642 84 1222 79 248 78 464 77 392 77 607 76 518 74 920 71 789 63 232 66 207 61 85
4015 1.5944776196947379 1.4833538655791307 4.9165903963350575 231 212 198 1.5446291439840343 51 836 50 923 52 930 49 817 43 711 44 560
1663 3.8072561224243766 2.0675820250839614 4.1199763912712655 207 195 184 0.33296823413420557 31 1895 84 1518 82 877
1664 3.1197845698594824 1.3591805974857381 2.0490874528217846 124 142 160 1.915447555108307 30 1411 84 1534 82 901
1665 2.6739386404463072 0.3932790233698602 2.3190340060242756 118 124 120 1.2326531962239216 31 1925 84 1547
4022 0.47356412321162977 2.1106787120965045 4.0916743948508048 227 205 182 1.9601539949943549 51 873 50 941 49 825 46 985 44 454 45 616 42 515 47 1237 41 604 40 683 39 555 53 1033 54 1132
1666 3.5228371705039874 0.71001148397341451 3.4604919451950349 206 198 185 1.4446566237149319 84 1553 30 1438
4023 0.44818916003272702 2.1482951884917894 4.0511875766945922 192 170 149 1.3199609956830247 51 874 50 942 49 697 43 622 40 587 48 835
1667 3.5237029635003476 3.0486651316825255 2.7851363091818175 203 191 179 1.8600262570724393 28 1353 84 1584 82 959
1668 3.9106883451893739 2.0775875945091702 4.0841622668692361 215 207 195 2.2036107384526784 28 1365 29 1483 84 1574 30 1457 31 1952 82 955
1669 1.3143484031124544 3.1625017767646155 2.6543224992699983 209 187 173 1.1069795441158861 25 1524 24 1697 23 1130 22 1002 84 1455 30 1207 31 1699 51 996 48 1271 49 910 46 1100 47 1324 43 688 41 683 54 1256
4026 0.001541686205034834 2.4417326684800065 3.6270418405213389 206 184 163 0.75076074244776181 2 937 51 882 50 948 52 805 53 915
1670 3.5545110127154973 2.9705359965891729 2.9061923482405501 213 212 205 0.7861440486358855 26 1020 27 1108 84 1394 28 960 29 1097 30 1103 31 1508 81 737 82 749 80 743
4027 -0.0017304996290862461 2.4355989885331049 3.623103659255777 206 184 163 0.75112434098403758 2 936 50 949 49 702 53 916
1674 4.1500275289598196 1.6753752169716296 4.5973407600370209 135 154 151 0.91028005539599377 25 1444 27 1088 84 1490 28 1080 29 1198 30 1181 81 786 82 797
4031 -0.10088985381509238 2.1444216659411608 4.0082919247284599 204 179 159 0.63137152388635276 51 900 50 970 52 991 2 942 53 1063
1676 3.4350770684315992 2.0347169744837248 2.7482411523379655 30 32 26 0.68295351600057586 25 714 28 743 26 792 27 757 29 1028 23 527 22 389 21 195 84 1024 30 1044 31 1437 81 317 82 383
4033 0.30190429790797868 1.7264930003271353 4.5766038947435321 204 183 164 0.94632660058802331 51 898 50 973 52 984 49 728 48 1193 43 726 44 580 53 923 54 973
1680 3.4607638250076569 0.61218745189874901 3.380008461313083 54 45 54 2.7277089699736021 30 1381 84 1512 29 1405
4037 -0.40023589489397571 2.0538154503043944 4.1168472329089685 229 204 184 0.76688158019544639 51 914 50 989 53 934
1681 3.2771943997995479 1.7048449959815259 2.5092935457849288 78 63 68 1.4001865715174828 28 1387 84 1596 82 973
4038 -0.18930980288340105 1.8929325059839632 4.3687689795897366 203 182 163 1.0896730309940843 2 948 50 990 48 1072
1683 2.9837143862196549 2.152220095252888 2.4169886552124691 32 32 42 0.40337501210858068 84 162 81 74 80 53
4040 -0.32882560082195833 1.2695401275691829 5.2001018001252586 135 138 131 1.6783456003650148 51 937 50 1017 46 1053 47 1178 45 638 57 888
1685 3.1401469525609533 2.2949882862225022 2.6032829079012152 17 36 50 0.31979004573751529 21 97 81 108
1686 3.0492262282432256 2.3253439055297722 2.5504360745467487 129 158 174 0.55002574044707175 23 365 81 111 80 70 20 146 19 96
4043 2.3276280934544511 0.95821594583121539 1.8399277709612976 165 142 138 0.31277832066639372 51 979 50 1061 52 877
1688 2.1548448305006711 2.7477260068172948 3.0584249248508848 81 66 62 0.2415380113255407 31 338 78 358
4045 2.7160184879856168 0.42159585544312267 2.5944711124924629 190 200 199 0.72464090966260608 51 784 50 1066 49 784 48 1261 46 1197 47 1319 43 771 44 648 45 729 42 672 41 782 40 734 39 612 38 723 37 692 36 948
1689 3.2161909930991017 2.5870775123835807 2.9445868005307823 106 119 117 0.52247084462126381 81 136 82 283 80 85
1692 3.204105355518299 1.1479997218278286 2.5965469833216819 149 147 158 1.6623471790834989 84 84 81 185
1693 3.4272816420341368 2.0399921690227685 2.714943774218487 43 40 31 0.4832662251062807 84 533 81 199 80 217
4050 2.0362070767799891 1.8514947599495926 4.4164424583707405 59 51 44 0.67192667898560055 51 812 50 1090 52 914 49 805 53 991 54 894
1695 2.9326868268396371 2.3682238764335706 2.5395799453081396 95 124 142 0.67911760232266927 84 568 81 225 82 401 80 424 79 241
1697 3.1669412903577658 2.8260427484834962 3.1069770471342748 86 102 101 0.89572063534851198 31 358 81 243 80 272
4054 0.36156590923621323 2.343842858586604 3.7907099199232683 230 208 187 0.70226248053667728 51 867 50 1112 45 612 42 504
1698 3.0768498895433147 2.9599760852766699 2.982559856533658 76 92 91 0.99353534243380293 26 657 81 251
4055 -0.30788602071022775 2.237113474086966 3.8755328753820271 204 179 157 1.0849262546765257 51 1040 50 1125 52 1115
1699 2.6895857835200805 3.0647286245209959 2.8250228057516669 75 78 71 0.50263478694428876 84 614 81 253
1701 2.0651973979963603 0.51153397706745696 2.242752390554815 111 97 102 0.054190499370466549 84 24 81 270
4058 0.049808014980729294 1.0016373985048426 5.5560930166331222 134 137 130 1.1758832897989577 51 935 50 1155 49 870 48 1120 46 1163 41 829 40 775 42 716 53 1082
1702 2.184374114153222 0.89430449392939471 1.8253857789101002 242 214 211 1.4988077691153403 84 748 81 280 82 189 80 502 79 188
4059 -0.37787472671457445 1.1425225646997057 5.3647094934906523 144 147 140 0.62421236789031831 51 1077 50 1166 52 1132
1705 3.1802062256400876 2.0705662237398754 2.4951733012002522 169 167 166 1.4300353456800625 23 345 81 321 80 398 78 59 78 217
4062 2.1914947907884361 0.95902951288867377 1.9316516225437461 114 97 105 0.86730845732810047 51 1103 50 1197 49 897 48 1132 46 1078 44 526 42 303 43 317 41 517
1706 3.1605219125869857 2.0941995289756519 2.4793425977511045 159 171 173 1.3183750194342057 84 536 81 325 80 227
4063 2.211230152022218 0.98948237195575428 1.92378734610326 114 97 105 1.5425183683987818 51 1102 50 1198 52 1056 53 1124 55 1003
1707 3.5064573952706319 2.2090812209965076 3.0192530964254138 138 168 172 0.50685083713899637 84 1039 81 336 82 533
1709 3.3048991241906651 2.355871553686915 2.7899947314194664 5 41 59 0.55982323872024498 84 837 81 345 82 403 80 420 79 142
4066 2.8742872385644391 1.1659757128793906 4.2429342628488058 168 150 143 1.5262289717244706 51 995 50 1204 52 900 48 1343
1710 3.3045360313929324 2.3576782605822104 2.7987084841974967 5 41 59 0.67619959398877161 84 838 81 346 82 404 80 421 79 141 78 77
4067 1.27059683158109 2.1907835927605004 3.9594286562367431 196 165 144 0.55143587590199017 51 1009 50 1209 52 1082 43 788
1711 3.0328813026510262 2.5727238304665447 2.7498948428138585 98 105 103 0.97313296385019188 29 890 81 354 82 280 80 261 79 160
4068 1.5731995881950833 1.5678816101840993 4.7964600142373044 205 186 169 1.6426763770597939 51 1110 50 1210 47 1406 44 662 42 690 40 752
1712 2.9638730037383754 2.5919266956816878 2.7266836238783108 2 6 3 0.30537325102043628 84 1050 81 355 80 432 76 189
4069 0.78497604744790517 1.6799002189955701 4.6662640100368593 231 209 195 0.98798368836799388 51 1116 50 1214 52 1170 48 1292 46 1211 47 1335 42 692 41 809 40 758 53 1159 54 1269
1713 2.3783761866060429 0.12415736603963765 2.1160547770237268 144 131 115 1.4618902923359163 84 715 81 376 80 472 79 252
1714 2.3540224080269443 0.14886675661481411 2.1432082918714457 126 115 93 1.6945808794708146 84 716 82 166 80 473
4071 2.6181741830788066 0.0019550271397635252 2.1789378457335236 179 172 162 1.8504960227713991 51 1097 50 1243 48 1329 46 1286 52 1155 47 1389 43 828 45 783 42 747 40 806 39 608 38 720 37 688 41 871
1715 2.0066174364740164 0.20998380469977476 2.6738079360616136 148 143 149 0.24568932306273486 84 719 80 476
4072 2.3574153806721196 0.12823224808263381 2.1599060506866232 125 95 68 0.77547822459105886 51 1138 50 1245 52 1192 49 947 48 1330 46 1253 47 1315 43 830 44 642 45 785 42 665 40 728 39 580 53 1232 38 681 37 649 54 1349 55 1040 57 1033
1716 1.7453450697601545 0.59978877521636642 2.4902535782938804 86 106 130 0.55886249787854458 84 734 82 444
4073 2.4672532964414788 0.80879664484957525 2.1182568119747898 139 105 100 1.6553391876737666 51 1139 50 1246 49 949 48 1362 46 1257 47 1393
1718 3.8979580333017498 1.2375084644564704 4.3400589446258753 205 197 195 1.7504257513108263 29 851 81 433
1719 3.1968399642379803 1.3241348542378761 2.1539118399520016 141 163 178 1.0185925262442921 29 838 81 438 82 363 79 205 77 219
1720 3.3501682666105497 1.955982048886544 2.6103986971998325 146 132 130 1.5012402957546753 21 408 81 449 79 214
4077 3.6546063239638653 0.76228029060450075 3.7198526566343952 224 213 209 1.2374094375821207 51 1106 50 1252 52 1067 49 954 48 1338
1721 2.1954364215324276 0.93962158242495586 1.9070230654214704 64 39 35 1.5426542018827405 84 955 81 524 82 461
1722 2.0959940005433957 1.1413202194843894 2.0261043890002179 9 7 7 1.1056223150972422 29 417 77 448 81 536
4079 2.3942298701299269 0.048996155354788747 2.1456648881165052 239 237 225 1.0389035611055608 51 1165 50 1274 52 1191 49 974 48 1358 46 1252 47 1419 43 829 44 757 45 784 42 726 41 839 40 781 39 609 53 1231 38 721 37 690 54 1348 55 1019 36 946 57 1014
1723 3.1976167818779699 1.3719078240358038 2.1487766604610186 154 171 179 0.42016898391232815 84 1192 81 553 82 606 79 299
4080 2.3738546559750136 0.39031531924939544 2.3187079631303877 92 66 52 1.1306521796562448 51 1166 50 1275 52 1216 49 977 48 1360 46 1288 47 1421 43 863 44 761 45 787 42 749 53 1253
1724 3.2636407974684527 2.0707943928417381 2.561299220376184 161 169 172 0.54264464759292053 84 1210 81 566 82 623
4081 2.2708438652503475 1.008220252903979 1.8224313122173912 70 33 25 1.6338177757973589 51 1167 50 1276 52 1235 49 978 48 1361 46 1254 47 1390 43 831 44 720 45 786 42 728 40 731 39 520 53 1272 37 527
1725 3.2636407974684527 2.0707943928417381 2.561299220376184 161 169 172 0.54264464759292053 84 1211 81 567 82 622
4082 2.3964642544047057 0.48249895270651505 2.4199957480111483 5 5 5 1.101303549759246 51 1168 50 1277 52 1217 49 979 48 1363 46 1289 47 1422 43 864 44 762 45 821 42 750 41 876 40 809 39 640 53 1236 38 746 37 717 54 1353 55 1024 36 980
1726 3.1241377742145295 2.3313295547743054 2.6123538933619992 25 41 54 0.88894689593446152 21 532 24 1322 82 638 81 579
1727 3.1785292736988726 2.4382614434317023 2.7330638929937376 106 139 156 0.55440662710236854 24 1324 84 1223 81 585 82 723 80 575
4084 3.1794257426607864 0.48372535673724265 3.5535025138472625 78 50 51 1.5628046814718004 51 1172 50 1279 52 1200 46 1290 47 1424 43 867 45 824 42 754 41 880 40 820 39 662 53 1136
1728 2.7190065580568996 2.9054175287557609 2.9568454341084602 70 86 85 0.60139079727397882 31 1483 84 1230 81 591
4085 4.0509028262390006 1.4844372582680738 4.6986697083016633 217 208 201 2.0390370051199906 51 1174 50 1282 52 1221
1731 1.8425765864414305 0.5581931683196707 2.3767101583902566 69 70 84 1.3230882784199141 84 1150 81 657 82 573
4088 3.0285214468968578 1.243110770849734 4.3382364312524526 101 61 59 1.9962400456937666 51 1148 50 1286 52 1205 49 985 46 1293 47 1428 43 868 44 768 45 825 42 757
1732 2.2965410525173895 0.89295186984495223 1.9268182245081604 110 83 76 1.5632800813615584 84 1325 81 667 82 682
1733 3.3654441850676511 1.1788514789776277 2.295941647845662 145 184 196 0.98373853580154447 84 1334 81 678 82 695 80 810
2843 2.8662027687061178 1.0061695731772784 1.9079310750921674 71 59 63 0.024867028422086442 15 134 14 104
1734 2.7852634621693411 2.5557962889233869 2.6256331254027194 115 108 102 0.47512577758983632 84 1368 81 711 82 724 80 842 79 488 78 587 77 590 76 675
1735 3.1081816052220894 2.609665108781654 2.6741065164794549 55 65 66 0.01190825534530365 84 1373 81 719
4092 2.3558987689399364 0.95113591550158982 1.7104662597117337 197 189 178 1.4839543930350352 51 1197 50 1302 52 1245 46 1300 45 836 41 891 53 1270
1736 1.0246390434799673 3.136713268746476 2.698880500180123 167 139 117 1.2205968974174497 25 1204 29 902 48 963 38 571
1737 3.036867346440089 2.6476832972216426 2.6837175491467513 49 58 53 0.30867081495079562 84 1374 81 721
2097 1.9839467367316077 0.890900524294027 2.0263099074194217 120 87 85 1.6135471599537605 79 361 78 542 77 564 76 579 75 1020 74 820 73 1197
2099 3.2354684575812707 2.6075393554335888 3.0741161953927927 136 159 166 1.6338192988716398 79 486 78 582 77 474 76 317
2101 0.80595949874210226 2.9106924099600895 2.7103205167264739 168 146 132 0.97340707599328002 80 723 78 595
2104 3.0007539400317649 1.434690649612508 2.0466777516967269 59 56 63 1.076446211741457 79 476 78 686 77 682 76 666 75 1034 74 825 73 1205 71 766 70 336
2105 3.9868710407109331 1.7232074551032479 3.9355508067797031 167 192 197 1.3917404930614887 79 621 78 726 77 680
2107 2.7903551376141009 0.22309804541897427 2.3543321646646902 179 197 188 0.59994633986777202 79 574 77 741
2109 2.3600033284159481 0.36155606343804503 2.3654927866329429 89 69 58 0.8642302504476449 79 616 78 773 77 755 76 773 75 1266
2111 2.8970576379900543 0.21164918306596917 2.327889449583743 45 24 19 1.7944144150855497 82 934 78 804 77 782
2114 2.9319884538558996 0.68749158666318133 1.8314470245107981 141 112 117 1.5488099233390564 80 1081 78 828
2116 2.653026461009298 0.034802807479874923 2.226440240711415 76 76 73 1.3005506304467507 79 343 80 471 78 521 25 1 24 3 77 417 76 558 75 994 74 798 73 1174
2117 3.1594308171694192 1.3607579722116676 2.1307539443013273 66 65 80 0.99808295907751732 25 1147 21 393 19 386 78 328 29 1186 30 1172 31 1675 84 1343 81 550 26 780 82 705 80 682 79 385 77 459 18 302 76 283
2120 1.6641760895592186 0.33927200988541495 2.6519708797055666 212 198 187 3.4867332598944927 82 171 78 285
2122 0.92738461061554078 2.6265770620338516 3.4851384542531925 190 162 140 2.0687847500694501 80 1078 79 665 25 1627 28 1376 26 1407 27 1345 29 1498 24 1805 23 1220 22 1125
2125 2.2188367073985473 0.071267034334044771 2.791691505774903 79 59 60 0.61071743815453061 77 6 76 371
2126 2.0775607192967502 0.062203000713713014 3.0624298760500386 132 117 122 1.6275920923679197 78 150 80 0 77 8
2127 3.1707792676334092 0.95598823448578474 1.9475332954140252 136 119 125 0.33817533247468512 78 31 77 39
2668 2.8167815772509979 0.39234164902563395 2.3638693178794323 251 238 232 2.8287396276234258 71 437 70 179
2130 3.139081953595154 2.2712183735197655 2.5806842825056595 130 150 159 0.55805544718880606 79 138 77 107 76 172
2131 3.1183518475952567 2.2857348922686991 2.5755510482350163 129 149 158 0.31836049295679603 80 419 77 109 76 174
2132 2.7742737686924119 2.2213000855465777 2.3835710857190704 75 57 55 1.0193578208670271 23 166 27 183 77 111 18 90 15 79
2133 2.7559387522806058 2.3155488113237679 2.390838483446776 79 59 58 2.5091517094537901 22 268 77 125
2136 2.7688058356358591 2.5163439851650105 2.590330227815413 70 55 48 0.49907467044061632 24 586 25 469 77 132
2138 1.8550098609647747 0.39280226336531049 1.1321187272791566 188 175 162 1.3116354488025572 78 281 77 170
2139 3.3554624940517064 1.1653253722411248 2.2745441146727234 168 159 157 0.58428783747277802 20 66 78 322 77 200
2140 3.2338847385470477 2.0588258007063445 2.5177686204427001 67 56 52 0.86653187431692791 80 395 77 241 18 64
2141 2.3580471853182519 0.15126655800376798 2.1406370475401295 108 90 62 0.61632365762574015 19 332 77 300 17 254
2145 2.9979393013170101 2.511516843837367 2.775718610205721 109 116 116 1.2555811364155829 80 577 77 379
2148 2.6788231342997082 0.57120845372442663 2.461216584089152 4 4 11 0.73432214002732232 78 538 77 427 76 386 75 740
2149 2.3444660431396223 0.98829853943474533 1.8600285897656681 203 180 174 0.43580915371241685 78 548 77 439 76 582 75 1022
2150 1.0782688784259395 2.6097020540947344 3.405243750891672 152 121 100 0.44157901622016138 24 1123 77 475 69 469 15 321
2151 2.8256856383679922 2.989084979313231 2.832448379784771 65 74 66 1.1053300803312465 27 988 77 492 75 922 74 752 73 1021 72 576
2156 2.366843744192956 0.18124089068705099 2.1491034991867952 93 75 55 0.61534638092904415 19 441 77 541 18 417 75 1122 17 388 74 878 73 1247 72 677 71 862 70 576
2157 2.7098942497914638 0.42578823770843249 2.6265976813534744 111 101 91 0.53294679000673018 78 399 77 551 76 651
2158 3.0898428329095893 2.7507606622702387 3.0533352648331387 70 71 63 0.31302666764971604 78 463 79 407 77 592
2159 3.2198404944053021 4.1181375020222006 1.3993802583708888 188 172 157 1.6139234719303706 29 1269 77 646
2160 3.7091988980063277 2.1068831423995542 3.3226287977273117 144 167 173 0.6927502531206382 78 727 77 683
2161 2.4122535219855914 0.13689812318428091 2.1164300606653832 35 21 8 0.85323339890456162 78 719 77 717 76 738 79 572 75 1225 74 978 73 1336 72 760 71 974 70 574 16 443 15 462
2163 2.0750200640729299 0.90174446954625986 1.9253680973392311 171 145 146 1.2506486565521495 80 976 77 723 76 659 75 1202 74 984 73 1341
2164 2.2263079656274023 0.16724802681218401 2.3703549740112377 34 22 24 1.5911423541514438 78 803 77 781 75 1288 72 820 71 1031
2165 3.3453408593061829 1.6283211939285389 2.598183444201418 90 69 66 2.3390943168113005 78 824 79 664 77 800
2166 2.0621341632875887 3.0988006211563901 2.9109557248462972 187 161 144 1.4181567499961261 69 769 16 570 15 675 14 591 13 585 12 460 11 531 64 462 65 393 63 426 10 494 8 355
2167 2.2608026899920026 1.2308348444468686 1.9446350127935887 6 0 0 1.6448366448313267 80 808 81 677 79 468 78 681 77 727 28 708 26 956 27 726 27 903 29 819 30 807 23 798 77 677 76 664 76 715
2168 2.8856241162839482 2.5339476377763952 2.61169715579409 128 121 115 1.3336539113510795 22 411 23 385 19 113 77 133 80 259 79 159 84 228 76 188 17 85 16 84
2172 2.5219230108380719 3.1260574571206226 2.7723366282013715 112 103 94 1.8031994387827894 19 691 20 702 21 831 77 787 21 819 81 932 80 1057 20 692 79 649 78 801 76 796 75 1286 17 567 74 1024 73 1379 72 811 71 1028 70 678 69 745 16 551 15 651
2173 3.1812603567042395 3.5404578699028164 2.150848469368444 115 106 100 1.8508879278778638 26 1057 77 503 22 726 80 881 79 514 78 628 71 839
2175 2.8245965189653677 2.7692099019404495 2.8234448727524128 18 19 19 1.1662867868617952 81 800 82 808 18 531 19 634
2855 2.4035071821398195 0.53731519247026893 2.410929504014121 23 17 17 1.4300860008871832 26 291 27 27 24 482 23 463 28 680 22 26 84 739 81 272 79 274 77 318 18 166 76 471 75 875 14 17 73 699 70 210 11 233 10 137 7 145
1607 1.6217496225785835 0.92099597387009902 2.5816260323065365 85 52 45 1.5614042348841011 22 990 21 754 20 660
2716 2.4420877972273218 1.328871407675505 1.9219319876265828 48 42 44 1.5081252629725546 70 340 69 432
2177 2.7246709676679735 0.56767155426457649 2.3212541410106629 98 82 83 1.050695336597723 19 156 18 10 17 261 16 260
2183 2.9224868586322827 2.182508817336525 2.3887644987177565 19 21 25 0.2533951461869528 19 77 18 81
2184 3.1720924398685382 2.2321099797711277 2.5569748696033505 50 60 69 0.38434419880121257 19 79 18 84 17 62
2187 2.5545457116815875 2.5278635756557462 2.5843305574415489 74 49 45 0.40437633357349806 19 117 18 120
2188 2.5163577555659389 2.5272365574978655 2.5332781606694819 97 73 69 0.28277588787527819 19 119 18 121
2189 2.565556447353428 2.5391961926907549 2.6202311031560654 97 72 67 0.77530348642470492 19 120 18 122 15 98
2190 1.5636725209628162 2.5476240255100513 3.5436763844145052 21 7 1 0.99455060937982831 19 235 20 172 71 681
2191 2.7284472018033661 0.4140271029086609 2.4019809724284156 129 119 115 2.4866585836726127 19 336 18 156 12 226
2193 1.8313070037247896 0.25839843736489398 2.7069713387197352 136 152 152 0.011923590740442653 25 634 18 164
2194 1.8781744302951815 0.40739127908343198 2.8838232267907098 117 119 124 1.8240103340870573 19 269 18 184 17 203
2195 3.0968916135571005 1.2351197144150594 2.1526158229674857 81 78 85 1.9446424550129884 18 193 17 138 16 211 15 221
2197 2.3191133596539233 1.224911139208374 1.9740783252004739 69 54 51 1.3244672798952826 20 79 18 205 16 213 12 49
2199 3.2543593623304701 2.0185248547500874 2.5277984732738532 79 59 48 1.0052754074013988 77 240 18 219 17 52
522 3.7688037473030489 0.64338799723906637 3.6338112258840649 50 51 58 0.33042930772410123 28 87 27 80 29 422 30 391 31 529
2740 2.8114516663120894 2.3926289438516402 2.4915320377243972 128 158 168 1.7445596858964876 25 1550 27 1270 29 1413 31 1896 24 1729 23 1176 24 1758 22 1084 84 1495 81 880 82 856 80 1013 20 680 79 610 19 664 78 764 77 744 76 764 75 1242 74 955 72 774 18 663 71 954 70 597
2204 2.7409476402651252 0.4943482839408716 2.4574100439493662 64 54 53 0.32177376161049509 19 155 18 268 17 260 16 326
2205 3.0299029466932086 1.2126534012107257 2.0838442757650166 153 147 154 1.5714954735956361 18 287 17 207 14 121
2206 3.0299029466932086 1.2126534012107257 2.0838442757650166 153 147 154 1.5714954735956361 18 288 17 206 14 122
2208 2.9219114136510882 2.3572676447873264 2.4949689264804658 118 126 137 0.31544358798719552 19 216 21 327 18 319
2209 2.5379137321937635 2.5150231526334408 2.5376364055812886 77 52 48 0.45228038829930339 19 409 18 327 17 169 16 231 15 235 17 170
2211 3.2161387499152645 2.0876815750882294 2.5260026385311929 73 62 71 1.0546765913686367 19 480 18 382 17 224
2214 2.1311830404466701 1.1961409616904111 1.9451983488222746 57 54 53 1.1526206692560319 19 537 18 441 17 348 71 885 16 348 15 387 14 245 13 205 12 247
2215 2.9118869607125357 2.1503954589044723 2.3716773808393894 162 154 161 0.61263176122187957 19 544 18 448 75 900 17 359 74 740 71 775 70 404 16 354 15 391 14 255
2216 1.4160273038988003 3.2842820473748096 2.5613154649329588 163 138 116 1.8108040326182149 19 498 18 473 14 287
2217 0.78793039886649285 3.4380165915140979 2.3436994708687413 163 138 116 1.3313449780641347 19 433 18 477 17 382 16 309
2218 2.8298933973906144 0.71793316189061307 2.4399305030042857 97 126 143 1.1524834454945045 19 531 18 507
2219 1.8855839134978409 0.51206831240245843 2.7239701767159223 155 127 126 0.91127388635517104 19 458 18 511
1651 3.1458993979942744 1.3338126047119909 2.1137716246632707 135 160 173 0.6205771319134098 28 886 84 997 77 222
4008 3.6999869082371557 1.2314134684914195 4.2501849169627048 238 229 224 2.2634535465629186 51 799 50 891 47 806
2760 3.1838709039369713 1.1311472436032932 2.2598422483517897 93 89 90 1.7531227035129973 17 345 16 209
2220 2.7714789208865862 2.605633848191149 2.6567232994051202 85 62 56 0.92555405260053136 19 412 18 527 17 236
2221 1.5275662846632512 2.2895671575033965 3.8020407449677602 48 29 16 1.7618268431946844 19 413 18 528
2222 0.82842025153651322 3.2244484524664179 2.6322851396527454 162 137 115 1.8248020929036803 19 499 21 565 18 546 15 418
2223 1.6938229362704502 4.0892564702987029 1.4048085363972316 166 147 130 0.53344188162194972 19 570 18 568 72 667 70 498
2224 1.6602197836362118 0.43514524697537615 2.723380238868284 82 62 61 0.95863403607536779 18 590 17 464
2225 1.829470806274708 0.42002256334430244 2.8193067960032354 202 254 255 1.8920671616924956 19 626 18 591 17 463
2227 3.3115422641550141 2.3787233484474046 2.8598842871335077 141 150 157 1.1841990587157198 19 631 18 601 17 362
2228 1.2881983230655287 3.0642592598719181 2.8039432857121098 191 170 151 2.2916321075649519 18 609 81 799
2229 1.0221070529990577 3.7409190515806312 1.8763513050305132 159 134 112 0.28910280913543412 19 614 18 615 68 357
2230 1.0473946740410389 3.7982622626184597 1.8025777875180948 162 137 115 0.54662238227805027 25 1383 18 616 13 481
1662 3.2164248711030217 2.3024729158576376 2.6533326651729796 132 166 183 0.90325269994361645 21 758 84 1447 81 794 82 802 80 935
4019 0.88387292444537069 1.7901536003101362 4.5033895525725356 195 176 159 1.4383551085434434 51 702 50 936 48 1180 46 991 43 717 44 566 45 675 42 603 41 608 49 693 40 592 38 660
2771 3.0794056914754013 1.4038062831061249 2.1483517082498538 63 72 83 0.56310731642319989 17 290 16 284
2231 2.7444066372153011 0.54627994611851416 2.4235990906221541 252 250 251 1.9262909544790683 20 640 18 637 17 455
2232 3.4123952691243069 0.88715006368264282 2.1257924132956951 210 255 254 1.0074010776262416 19 649 18 638
2233 3.3731078283976403 1.0792896596848023 2.2140725034725333 206 247 253 2.4052239230022123 19 662 18 671
2235 3.0333722824746867 2.1990926994343609 2.4932441463100097 142 153 165 0.83308870101027299 19 675 18 676 17 536 16 519 15 598
2237 2.5499756395789164 0.3472831397004485 2.1127035379727297 133 134 125 0.98832689437534305 26 7 23 7 19 153 18 153 25 330 28 494 24 461 81 384 82 310 81 268 80 336 20 314 77 306 78 288 76 374 75 724 73 676 74 29 72 285 71 434 70 175 69 3 16 102 12 1 11 2 68 87 66 10 65 8
2238 2.8401729406182001 2.152560054856818 2.3772402722290145 19 12 12 1.7524803388310033 22 249 18 79 80 52 19 207
2239 3.0238310695418331 1.448220732326424 2.0708792940562151 17 19 27 2.1712779224705314 18 216 23 518 26 357 31 846 20 252 24 538 77 88 76 154 76 155 75 121 73 147 25 104
2241 2.8941547481735497 2.3845891622439814 2.5152763608307787 107 120 138 1.8259929246748259 21 220 31 628 20 282 18 239 30 677 31 629
2242 1.3674709094377409 3.1604552153790268 2.6613183694148597 116 102 90 2.0201180879683687 23 881 18 472 20 534 26 861 22 705 81 593 30 892 84 1224 80 738 46 769 47 819
2244 1.6739623055053849 0.36837148312240348 2.6133141339890975 0 0 0 0.38232920190007541 28 1044 31 1387
1136 3.4832120635528767 2.1839143086544288 2.9296491121996606 32 39 47 1.4474131046554539 30 1311 31 1818 84 1214 81 334 82 633 80 230
2245 1.2622501536037047 1.9669700083175967 3.4690885789617325 188 166 152 1.1459494717495211 18 709 16 569
487 3.9105559651610724 2.0705646507468898 4.0788419038840082 222 208 199 0.76530363870098705 28 1348 26 1383 27 1320 29 1467
5574 2.2618962497306345 1.5601883655424049 2.1219360719909224 116 85 79 1.9841443826612282 55 1059 57 1053
1138 3.2131220332455204 1.3365624525586306 2.6199006534601366 95 98 110 1.2551741164144374 31 1910 22 930 23 1059
2247 3.2478282848375923 2.0418720010074169 2.5240479017479216 70 64 61 1.92847689752444 80 705 77 361 19 395 78 440 18 314
489 3.5530182396162262 2.5877721633666906 3.3795208288827343 148 169 170 2.357866587978438 28 1350 26 1385 27 1322 29 1468
5576 2.9694819747906447 0.18685769514338749 2.6588353144674848 116 100 96 1.208436796488942 54 2 55 226 52 223 53 2 57 237
2249 3.5709480653286056 0.97834336477636907 2.8920719896638594 142 122 124 2.3748209949372345 26 577 76 79
1143 3.5742255038326909 0.46761732724603494 2.9789448949650437 231 220 202 2.6106816425341219 30 1480 31 1979
2252 3.10972193673501 1.4172766012131062 2.0843179636750628 77 72 77 1.0578967563861734 77 87 76 152 73 134 74 115 72 115
1144 2.9114337006653743 2.3311386050378671 2.4895892498330849 104 127 145 0.56842739033484291 25 457 26 405 27 431 30 489 31 284 28 234 29 267 24 573 23 364 22 111 21 214 20 152
2253 3.0308870834601058 1.495664556581989 2.1027707266490192 71 66 70 0.36064529777022741 78 209 76 156 75 126
1145 2.6754885029245097 0.44984197016370597 2.444056385620939 76 77 82 0.68989663257914657 25 346 28 505 26 279 27 540 29 577 30 571 31 1051 29 782 30 761 24 469 23 260 22 323 21 260 19 11
2254 2.9717118528470094 1.5043886956228312 2.064471498471697 156 144 145 0.085864294107846989 24 544 76 158
495 1.920641824668279 2.7742809769890933 3.1840760776460808 23 22 20 2.385209395871275 28 1366 26 1397 27 1334
5582 2.5575203227438563 0.9595883061275553 1.7814375952813926 0 0 0 2.6927071239390097 51 779 55 785
2255 2.7929630790310216 2.2118162633932759 2.4004422047912408 50 34 34 1.4370928828788514 80 58 84 538 76 175
496 2.8431625804096905 0.55052298751698525 2.7206315811922162 126 146 157 2.2385645179783382 26 1400 27 1338 30 1475 31 1971 23 1205 22 1111 21 824 24 1799 20 706
5583 2.3997071452938337 0.56806739846645371 2.468567210759991 86 72 69 1.4484567844731016 13 528 12 398 11 466 10 439 8 304 6 382 9 369 7 278 5 367 4 410 69 691 68 416 67 374 66 498 64 429 65 353 63 390 62 350
1147 3.1859365962144657 0.79142530256473809 2.2622008305868668 123 111 116 1.8848222159864971 26 313 29 397 30 360
2256 2.9717407294163665 2.2718800577815266 2.4989327849145324 124 140 147 0.46776113210249592 80 67 76 176 15 80
498 3.5771361076610817 0.5334699950282924 2.9207714695509752 233 228 218 0.45666526694443366 28 1370 27 1341
